# This PCD file was generated using the MATLAB® pcwrite function
# from Computer Vision Toolbox®.
# .PCD v.7 - Point Cloud Data file format
VERSION .7
FIELDS x y z rgb
SIZE 4 4 4 4
TYPE F F F F
COUNT 1 1 1 1
WIDTH 1054
HEIGHT 1
VIEWPOINT 0 0 0 1 0 0 0
POINTS 1054
DATA ascii
-8.928408 -2.767946 2.008924 2.350986880e-38
-9.914209 -2.511429 0.862275 6.174929583e-39
-10.006789 -2.481307 0.942031 1.640899342e-38
-10.115039 -2.478779 1.103511 8.663124182e-39
-8.835809 -2.955192 1.741241 1.806924203e-38
-10.022511 -2.144383 0.947658 4.977471000e-39
-9.829111 -2.381368 0.715198 5.346256322e-39
-9.829959 -2.349530 0.740894 4.331742858e-39
-10.016961 -2.143091 0.908504 4.147708930e-39
-9.918875 -2.270453 0.797464 5.438449149e-39
-10.030564 -2.402439 0.867590 4.885271166e-39
-9.854430 -2.345557 0.780375 6.360045314e-39
-9.793298 -2.392898 0.733433 3.962963142e-39
-9.737324 -2.449357 0.742650 4.884915236e-39
-9.735133 -2.448089 0.744172 4.884915236e-39
-10.070400 -2.327323 0.995524 8.202866300e-39
-9.822237 -2.375209 0.754578 6.452240944e-39
-10.039025 -2.360480 0.945866 7.557501095e-39
-10.123302 -2.444157 1.102311 1.004677750e-38
-10.134250 -2.447334 1.100460 1.004677750e-38
-10.061813 -2.232153 1.262082 6.080573151e-39
-10.039001 -2.179788 1.379891 4.423216820e-39
-10.011124 -2.664495 1.000711 9.218825903e-39
-10.049842 -2.472928 0.999603 7.374193039e-39
-8.832078 -2.588425 1.887625 1.355454845e-38
-8.743161 -2.305964 1.347439 6.267496557e-39
-8.992861 -2.813987 2.034734 2.350986880e-38
-8.918115 -2.371538 2.053819 2.350950446e-38
-8.803414 -2.260442 1.848673 2.350950726e-38
-9.315221 -1.824778 1.966428 1.004751458e-38
-10.246920 -2.504947 1.492966 1.133896105e-38
-10.005431 -2.101725 1.071363 3.686372048e-39
-9.007339 -2.154847 1.546398 5.806512802e-39
-10.001649 -2.191413 0.885947 8.111037810e-39
-10.159907 -2.409755 1.149672 1.023044989e-38
-10.148268 -2.388725 1.130662 8.387257560e-39
-9.901438 -2.479479 0.831683 6.176011385e-39
-10.061926 -2.185799 1.336695 9.862389039e-39
-9.228576 -1.975220 1.702492 6.084900361e-39
-9.570815 -2.392884 0.520828 6.821023463e-39
-9.990249 -2.146246 0.999211 4.055154567e-39
-9.176550 -2.484303 0.618291 3.964044944e-39
-10.106928 -2.422995 1.117677 8.756038678e-39
-10.154044 -1.712122 1.372684 2.765145826e-39
-9.884070 -2.198833 0.734598 8.478379795e-39
-8.838413 -2.422186 1.885011 1.991171269e-38
-9.966257 -2.110822 1.508661 7.834096392e-39
-10.082097 -2.771627 1.072739 1.493495355e-38
-9.613006 -1.803403 1.862393 9.957122420e-39
-9.326096 -2.551964 0.426867 4.884562109e-39
-8.870758 -2.370589 1.961657 2.332438733e-38
-8.975187 -2.668726 2.111797 2.046560254e-38
-8.846975 -2.322153 1.918531 2.074291390e-38
-10.144525 -2.711234 1.065004 1.087797730e-38
-8.832561 -2.222978 1.875965 2.212549522e-38
-8.914700 -2.816298 1.934462 1.954364904e-38
-8.861656 -2.591426 1.874843 1.816035866e-38
-8.782905 -2.227129 1.431879 8.480910540e-39
-8.674850 -2.753473 1.458461 2.212512387e-38
-8.818865 -2.942137 1.690727 2.267902493e-38
-8.751198 -2.291993 1.739726 2.120462072e-38
-9.960994 -2.162468 0.766593 8.661689252e-39
-9.951394 -2.160047 0.769643 8.661689252e-39
-9.704512 -2.229572 2.228785 1.336871525e-38
-8.688869 -2.845102 1.418747 2.221696357e-38
-10.287875 -2.614533 1.379621 1.880500921e-38
-9.982471 -2.105157 0.837694 1.317889256e-38
-9.973975 -2.105201 0.839324 1.317889256e-38
-9.166927 -2.226109 2.130432 1.078724182e-38
-8.666799 -2.312598 1.590101 1.521334952e-38
-9.105082 -1.879165 1.931504 5.622846014e-39
-10.066710 -2.349375 1.067910 1.981987720e-38
-10.036612 -2.117586 1.213776 3.133561205e-39
-8.705059 -2.410724 1.612291 2.028158122e-38
-8.747065 -2.969397 1.544639 2.240315971e-38
-8.745009 -2.967282 1.546733 2.240315971e-38
-9.999187 -2.440725 0.966193 1.806924203e-38
-10.073309 -2.278719 1.161950 1.815963279e-38
-9.898525 -2.552313 0.872098 1.262934394e-38
-9.057858 -2.726572 2.224294 1.585655813e-38
-10.009660 -1.896582 1.248955 2.487833064e-39
-9.450869 -2.562412 0.719550 5.346259124e-39
-10.004309 -2.090521 1.145509 6.636276274e-39
-10.065481 -2.308794 1.115840 1.714512213e-38
-10.068459 -2.206114 1.293414 9.861314243e-39
-10.018421 -2.033430 0.976260 3.133202473e-39
-8.990070 -2.528812 2.168987 2.194182142e-38
-9.337633 -2.537910 1.880611 3.871853518e-39
-9.982973 -2.124267 0.865960 4.513974717e-39
-9.540298 -2.394701 0.530797 4.332107196e-39
-10.042796 -1.936639 1.034006 2.857698787e-39
-10.132523 -2.449608 1.061216 7.004684647e-39
-10.080293 -2.291075 1.190419 7.003251118e-39
-9.981017 -2.194326 0.998016 1.410519008e-38
-9.883335 -2.342152 0.837768 8.849687454e-39
-9.884016 -2.393308 0.829530 7.005774857e-39
-9.949148 -2.262980 0.914760 9.402496896e-39
-10.122460 -2.204852 1.079561 8.111759479e-39
-10.067817 -2.164363 1.434500 4.515050914e-39
-10.090764 -2.149442 1.251055 2.949169945e-39
-10.024932 -2.127771 0.894337 5.807591802e-39
-10.183249 -2.309936 1.224520 9.861672975e-39
-9.834979 -2.596631 0.868703 5.254412418e-39
-9.667708 -2.481255 0.713148 5.346256322e-39
-10.150631 -2.403501 1.354938 1.087654097e-38
-9.857786 -2.499115 0.819873 4.055514701e-39
-10.001965 -2.502299 1.022723 6.821016457e-39
-10.207804 -2.485574 1.193618 1.945073174e-38
-10.149608 -2.489238 1.307216 7.190156307e-39
-10.185098 -2.545578 1.241142 6.912489017e-39
-10.031280 -2.574020 1.046272 1.853022018e-38
-10.142651 -2.467072 1.184261 2.147903420e-38
-10.097202 -2.537348 1.086047 2.166378839e-38
-8.738617 -2.851361 1.538249 2.194073261e-38
-9.974057 -2.634188 0.986816 1.594874535e-38
-9.714670 -2.094603 1.738046 4.608694086e-39
-9.953933 -2.466779 0.896857 5.345168914e-39
-9.824248 -2.611506 0.839127 9.033715778e-39
-9.690877 -2.494744 0.753891 6.360405448e-39
-9.696673 -2.388011 0.666448 3.870404575e-39
-9.962898 -2.125848 1.427961 6.266050417e-39
-8.861374 -2.103992 1.999174 1.650265061e-38
-10.008757 -1.923997 1.041353 3.503068196e-39
-10.197659 -2.592238 1.223147 7.281274339e-39
-10.172987 -2.666457 1.070737 6.545149835e-39
-10.108590 -2.548106 1.119098 1.299812646e-38
-10.144951 -2.358986 1.337077 1.272045356e-38
-10.224568 -2.430959 1.396028 5.530281843e-39
-10.059761 -2.151140 1.132287 5.806871535e-39
-10.085163 -2.394059 1.060680 9.770560549e-39
-10.214766 -2.562779 1.186748 9.771276613e-39
-10.151852 -2.400515 1.093051 1.521009290e-38
-10.089005 -2.276081 1.213895 6.173849182e-39
-10.235051 -2.497386 1.245869 1.871352964e-38
-10.055277 -2.579084 1.005521 7.742255291e-39
-9.651345 -2.534821 0.757001 3.963321874e-39
-9.887823 -2.160679 1.659173 2.395998969e-39
-8.749265 -2.893339 1.573789 2.341767597e-38
-8.916887 -2.816019 1.932872 1.935890465e-38
-10.095909 -2.337037 1.129578 8.939722282e-39
-10.018907 -2.223792 1.002725 7.282361746e-39
-10.083209 -2.307627 1.014592 8.387267369e-39
-10.080287 -2.205862 1.310714 8.663131188e-39
-10.100608 -2.436862 1.007888 1.124641370e-38
-10.154305 -2.361568 1.145810 1.262934534e-38
-10.102569 -2.277592 0.982808 1.041736909e-38
-9.912686 -2.545935 0.783906 4.609411550e-39
-10.099732 -2.245071 1.021208 9.863837981e-39
-10.257833 -2.004635 0.830750 5.253699157e-39
-8.851521 -2.073960 1.893110 9.587256697e-39
-9.466312 -1.717552 1.844310 4.886001243e-39
-10.183771 -2.635412 1.104759 1.060139181e-38
-10.207248 -2.562095 1.187032 1.060031701e-38
-9.133087 -1.963148 1.746581 6.267493754e-39
-9.456718 -2.452823 0.517643 4.976754936e-39
-8.704447 -2.627052 1.308523 2.092838836e-38
-9.109671 -2.410996 1.604264 3.411591432e-39
-9.973439 -2.138632 0.726736 5.713598306e-39
-9.293667 -1.953316 1.720026 4.056240574e-39
-10.033875 -2.134863 1.373437 3.408706159e-39
-9.538606 -2.181648 2.182863 1.484312927e-38
-10.054419 -2.169938 1.290855 3.961877135e-39
-10.020509 -2.413079 0.901190 6.820656323e-39
-8.980260 -2.659066 2.106691 2.074183630e-38
-9.785934 -2.088296 1.690899 4.976754936e-39
-8.991867 -2.934350 1.925415 2.148047894e-38
-9.458405 -2.085138 1.788310 2.949172748e-39
-8.729192 -2.279820 1.624060 2.175563370e-38
-9.218147 -1.816445 1.859785 5.623567683e-39
-9.858065 -1.726775 1.572641 4.149156471e-39
-9.904544 -2.219394 0.650413 4.146274000e-39
-9.395767 -1.753667 1.891020 8.112128020e-39
-10.174809 -2.061218 0.729362 5.069312101e-39
-9.977925 -1.994549 1.350907 1.161375008e-38
-8.843589 -3.073248 1.729742 2.267866900e-38
-9.609258 -2.417782 0.627757 6.268212621e-39
-9.375640 -1.836954 1.996990 8.758573627e-39
-9.376993 -1.837404 1.995714 8.758573627e-39
-9.170990 -1.845555 1.934066 7.374562981e-39
-9.661635 -2.696734 0.830513 8.480544801e-39
-9.019218 -2.535762 0.646261 5.807231669e-39
-10.370289 -2.301622 1.010821 4.609778691e-39
-9.984284 -1.832838 1.298411 2.765503157e-39
-8.956365 -2.634451 2.033049 2.350950446e-38
-10.060940 -2.706746 1.034632 7.097606149e-39
-8.948050 -2.628643 2.030571 2.350950446e-38
-9.876603 -2.722932 0.859219 4.885275370e-39
-9.598572 -2.395339 0.552728 5.807594605e-39
-9.569947 -2.537037 0.697294 3.963321874e-39
-9.877854 -2.264351 0.733427 4.607609481e-39
-10.083341 -2.742391 0.994713 7.189801779e-39
-9.631011 -2.488261 0.695975 4.332104393e-39
-10.045145 -2.149346 1.338999 3.686016118e-39
-10.163768 -2.411463 1.288609 1.603949484e-38
-10.064608 -2.237350 1.537604 3.409785158e-39
-8.855321 -2.092958 1.940061 1.152336633e-38
-10.022721 -2.061463 1.350641 2.672584457e-39
-10.176092 -2.667050 1.110543 1.180028813e-38
-10.117878 -2.473377 1.072697 1.032408325e-38
-8.784903 -2.509985 0.897632 6.913584832e-39
-9.156533 -1.873364 1.969609 1.069539932e-38
-9.710867 -2.127636 2.180980 1.115566000e-38
-10.043508 -2.468405 0.991663 7.374193039e-39
-9.674767 -1.928209 1.528298 3.410150897e-39
-9.811513 -1.801065 2.056241 1.336980266e-38
-9.566760 -2.303940 2.248894 7.374560179e-39
-8.692568 -3.068107 1.326082 6.544436574e-39
-8.813883 -2.143950 1.553507 5.991628534e-39
-9.940440 -2.727760 0.959921 6.360042511e-39
-9.901210 -2.318878 0.761635 5.715036039e-39
-9.096150 -1.867418 1.864226 5.622124345e-39
-9.592811 -1.882579 2.045683 1.226308936e-38
-9.307573 -2.451427 0.564478 4.423581157e-39
-9.662510 -1.842539 2.049495 1.180211121e-38
-9.608009 -2.516332 0.711513 5.622843211e-39
-9.605804 -2.515442 0.712201 5.622843211e-39
-9.704366 -2.441592 2.324528 1.087943745e-38
-9.809703 -2.301797 0.503582 4.607973818e-39
-10.295115 -2.631838 1.420092 1.050811858e-38
-8.775116 -2.239697 1.783054 2.166523453e-38
-9.977236 -2.118485 1.461777 5.897623827e-39
-8.731318 -2.836150 1.526453 2.350805972e-38
-9.955430 -2.546445 0.955735 7.465313873e-39
-8.806851 -3.095133 1.670378 2.341659417e-38
-8.693154 -2.689258 1.512215 1.945073174e-38
-9.930771 -1.878035 1.445191 1.115277333e-38
-8.953603 -2.890788 1.994062 2.350951707e-38
-8.690905 -2.852285 1.462376 2.350878279e-38
-8.842704 -2.184378 1.561901 8.573104768e-39
-8.744908 -2.299065 1.307493 6.267496557e-39
-8.847206 -2.025333 1.801079 8.295077344e-39
-8.722756 -3.026356 1.464658 2.166451707e-38
-8.869317 -3.097526 1.187135 5.255499826e-39
-9.512517 -2.066549 2.121886 1.392189184e-38
-8.669089 -2.834638 1.426211 1.770081965e-38
-8.824263 -3.040102 1.686816 2.341623263e-38
-8.758641 -2.750525 1.618661 1.862097107e-38
-8.760069 -2.627492 1.658194 2.194001655e-38
-9.011292 -2.333788 1.445960 6.637718210e-39
-8.964185 -2.563825 2.170082 2.350914573e-38
-8.737060 -2.363861 1.688590 1.862133681e-38
-9.238426 -2.717221 0.603128 3.225402306e-39
-8.819004 -2.782280 1.753987 2.212440781e-38
-8.860157 -2.837648 1.816420 2.009646689e-38
-8.980770 -2.741392 2.113647 2.350950446e-38
-8.977705 -2.740083 2.113102 2.350950446e-38
-8.935897 -2.441674 2.066422 1.935962492e-38
-8.932077 -2.442361 2.067273 1.935962492e-38
-8.818021 -2.600530 1.793205 2.000427126e-38
-9.506224 -2.499735 0.465107 4.884923644e-39
-8.694507 -2.388638 1.581103 2.350914853e-38
-8.925262 -2.893440 2.006793 2.323401199e-38
-8.745757 -2.417369 1.685009 2.350806533e-38
-8.880862 -2.615170 1.918047 1.945109748e-38
-9.827199 -2.312413 0.700139 4.977110866e-39
-8.797890 -3.000747 1.650210 2.323112111e-38
-9.189245 -1.834091 1.893963 8.480188871e-39
-8.713597 -2.311992 1.658162 2.018938559e-38
-9.062547 -2.933013 0.665606 4.518656455e-39
-8.966331 -2.637316 2.069643 2.350950446e-38
-8.915441 -2.569636 1.987129 2.350805832e-38
-10.086500 -2.373681 1.732035 4.516132717e-39
-8.851960 -2.143219 1.543762 8.480907737e-39
-8.678417 -2.839588 1.422834 1.981987720e-38
-8.710568 -2.451701 1.603276 2.350806673e-38
-8.928288 -1.960612 1.846556 8.387993241e-39
-8.765522 -2.266397 1.776904 2.350914713e-38
-8.867039 -2.301926 1.988317 1.899119973e-38
-9.703102 -2.318963 0.537053 5.439893888e-39
-8.772820 -2.116591 1.683889 7.556793439e-39
-9.018609 -2.638924 2.377861 1.558141457e-38
-8.732799 -2.850871 1.543207 1.917450779e-38
-8.962486 -2.648467 2.018528 2.350986460e-38
-8.812494 -2.739953 1.735401 1.769901758e-38
-8.809138 -2.740657 1.736737 1.769901758e-38
-8.875872 -2.691788 1.889193 1.945109748e-38
-9.395933 -2.057400 2.093627 9.680892862e-39
-8.895102 -2.503462 1.971436 2.120281165e-38
-8.881645 -2.923461 1.737651 1.935674105e-38
-8.764844 -2.669363 1.666212 1.862097388e-38
-9.430173 -1.764271 1.955569 7.283446351e-39
-8.792729 -2.846814 1.656316 2.295416848e-38
-8.670833 -2.784075 1.445474 2.350842266e-38
-8.773507 -2.791067 1.634614 2.194001375e-38
-9.980752 -2.095355 1.480339 3.317589529e-39
-8.937625 -2.517326 2.057909 2.129608908e-38
-8.938323 -2.517986 2.057578 2.129608908e-38
-8.788769 -2.553401 1.752082 2.028085535e-38
-8.854166 -2.427519 1.911617 1.696181267e-38
-8.894692 -2.642983 1.935254 2.332331394e-38
-10.150815 -2.370115 1.607599 3.316510529e-39
-8.903350 -2.947218 1.854181 2.101842319e-38
-8.852834 -3.052749 1.153411 2.111278523e-38
-9.985871 -2.186664 0.613635 6.543360377e-39
-8.874905 -2.579654 1.911196 2.212477075e-38
-8.623982 -2.531436 1.398277 2.175599243e-38
-8.871786 -2.783482 1.849331 2.009646689e-38
-8.801670 -3.059461 1.649856 2.157232004e-38
-8.708500 -2.886174 1.481538 2.120389345e-38
-8.807887 -2.768655 1.728518 2.194001655e-38
-8.857350 -2.732946 1.831764 1.871353244e-38
-8.688300 -2.610806 1.496145 2.009610395e-38
-8.855946 -2.265755 2.003549 2.350878840e-38
-8.784618 -2.272671 1.811023 2.111206216e-38
-8.873228 -2.247317 1.984338 2.129645201e-38
-8.819863 -3.068702 1.645834 2.157232004e-38
-8.778732 -2.919682 1.623618 1.945109748e-38
-8.713955 -2.781966 1.520284 2.175562249e-38
-9.499104 -1.827123 1.698287 3.134285676e-39
-9.882216 -2.582136 0.850353 1.281373660e-38
-10.070627 -2.255138 1.192536 1.502246885e-38
-10.059779 -2.309863 0.971640 5.345890583e-39
-10.033841 -2.301050 0.965131 4.882753033e-39
-9.276917 -1.904005 2.009323 8.943325020e-39
-9.800070 -1.859126 1.525750 2.304523606e-39
-10.015434 -1.840439 1.215475 6.083105297e-39
-9.960023 -2.696625 0.949382 1.428958414e-38
-9.839396 -1.866541 1.474867 2.120493882e-39
-8.815919 -3.179884 1.596866 1.530303402e-38
-9.448505 -1.904506 1.722570 4.517218723e-39
-8.893130 -2.804822 1.885794 2.350950446e-38
-10.125504 -2.171014 1.169003 3.502340922e-39
-9.796965 -2.270425 0.593834 4.331385527e-39
-9.823511 -2.376383 0.752904 6.268209818e-39
-9.828147 -2.397729 0.769144 5.161502126e-39
-9.972713 -2.647702 0.943205 6.913213488e-39
-9.985744 -2.107954 1.107317 9.954588872e-39
-10.043866 -2.793403 1.019953 6.545151236e-39
-8.997038 -2.295575 2.129631 1.198506474e-38
-8.850964 -2.897922 1.769755 1.991207563e-38
-8.676866 -2.559314 1.540045 1.972732143e-38
-8.687893 -2.561907 1.538668 1.972732143e-38
-9.958243 -1.997314 1.370956 3.686734984e-39
-10.064506 -2.207083 1.291489 9.217019630e-39
-8.804747 -2.258572 1.847114 2.350950867e-38
-8.847198 -2.454641 1.897999 2.350915554e-38
-8.775313 -2.308272 1.306753 3.870774518e-39
-8.723777 -2.449252 1.639796 2.258574890e-38
-9.262873 -1.841030 1.958182 1.143224689e-38
-9.791236 -2.065807 2.158718 1.290773991e-38
-8.963585 -1.941102 1.823628 5.990906865e-39
-8.903727 -2.985183 1.859101 2.323220151e-38
-10.065834 -2.535501 1.038744 6.635541993e-39
-9.655385 -1.912093 1.628833 2.672585858e-39
-8.748822 -2.303380 1.310579 5.899430101e-39
-9.271461 -2.090799 2.082047 1.087943605e-38
-9.355090 -2.473927 0.535433 4.884199173e-39
-9.990074 -2.176925 0.641627 4.146274000e-39
-8.735252 -2.364882 1.687287 1.862133681e-38
-8.755174 -2.695619 1.650858 2.147903560e-38
-8.726454 -2.548099 1.614359 1.889756077e-38
-8.807789 -2.525585 1.786187 2.092622756e-38
-9.294364 -1.825455 1.786705 6.544802313e-39
-9.083771 -2.590233 0.537000 4.976034669e-39
-8.787753 -2.514518 0.893837 5.806515605e-39
-9.446288 -1.793503 1.997579 1.115602294e-38
-8.744784 -2.538323 1.641604 2.147903840e-38
-8.745432 -2.539478 1.640907 2.147903840e-38
-8.681003 -2.904269 1.458633 2.157195990e-38
-8.765124 -2.374149 1.740073 2.046524941e-38
-8.846293 -2.484160 1.878003 2.055744224e-38
-8.847551 -2.484931 1.877927 2.055744224e-38
-9.366308 -2.533412 0.688734 3.410150897e-39
-8.836475 -2.902310 1.752716 1.714872487e-38
-10.112298 -2.337640 1.367238 1.253570357e-38
-9.944633 -1.903274 1.404744 2.395641638e-39
-9.792580 -2.095916 2.185817 9.587978366e-39
-9.468133 -1.765971 1.789721 6.452249352e-39
-10.106062 -1.890100 1.112898 4.886001243e-39
-8.751887 -2.416518 1.715599 2.046524941e-38
-8.945409 -2.593421 2.063538 2.175706723e-38
-8.902637 -2.383651 2.010135 2.129573315e-38
-10.002497 -2.635933 0.985049 1.825291723e-38
-9.888168 -1.856207 1.460024 1.299632019e-38
-8.794654 -2.492690 0.939158 7.096531353e-39
-9.274538 -1.850872 1.760907 4.332107196e-39
-9.603086 -2.390708 0.494911 7.281645683e-39
-8.771080 -2.439050 1.086843 5.897269299e-39
-10.064089 -2.356774 1.059710 2.101697845e-38
-9.894777 -2.552368 0.871923 1.585619239e-38
-8.881859 -3.015438 1.822339 2.350842967e-38
-10.006686 -2.412421 0.954318 7.372392370e-39
-9.960079 -2.696454 0.949409 1.843694835e-38
-9.031484 -1.913680 1.937419 1.050849273e-38
-8.870527 -2.456722 1.955341 2.129500728e-38
-9.631412 -1.674328 1.951319 9.220279050e-39
-8.743207 -2.535743 1.670692 1.972768157e-38
-9.641359 -1.865165 1.655407 5.992345998e-39
-9.716516 -2.090487 2.173721 1.318432680e-38
-9.977014 -2.137501 0.670126 6.177095990e-39
-8.789672 -2.973388 1.672421 1.862133961e-38
-8.789672 -2.973388 1.672421 1.862133961e-38
-8.902627 -2.030324 1.714875 6.266773487e-39
-9.611624 -1.738436 1.725612 3.871850715e-39
-9.714229 -1.639864 1.804769 5.347343729e-39
-9.968880 -1.832133 1.250505 3.134285676e-39
-9.744069 -2.327647 0.579957 6.082378023e-39
-8.926654 -2.918380 1.988497 1.567181374e-38
-10.009712 -2.141258 0.947512 6.266772086e-39
-8.663413 -2.752364 1.445464 2.037305098e-38
-8.984584 -2.523789 2.173608 2.120425779e-38
-8.995830 -2.529410 2.171037 2.120425779e-38
-8.935902 -2.375254 2.093964 1.945290375e-38
-8.810344 -2.124546 1.865052 2.037414259e-38
-8.831557 -2.444228 1.865616 1.917450779e-38
-8.845817 -2.448397 1.862688 1.991207563e-38
-9.624405 -1.696392 1.800706 5.346980793e-39
-8.910157 -2.111955 1.612995 6.819944464e-39
-8.792510 -3.042451 1.628343 2.350950867e-38
-9.798893 -2.569122 0.799712 5.345893386e-39
-9.469346 -2.552770 0.677245 4.424300023e-39
-8.957713 -1.988988 1.742348 4.700168047e-39
-8.747786 -2.926219 1.483647 2.350806393e-38
-8.824064 -2.196658 1.879855 2.166523593e-38
-9.692882 -1.713514 1.707011 3.410872566e-39
-9.563151 -1.708248 1.810837 4.425024495e-39
-10.234138 -2.784582 1.194443 9.681244587e-39
-9.179092 -2.560719 0.848594 4.239189897e-39
-8.791993 -2.601992 0.789062 1.189250477e-38
-8.734983 -2.311291 1.696315 2.350987160e-38
-8.986040 -2.624891 2.131542 2.350878560e-38
-8.881057 -2.553598 1.931386 2.083403193e-38
-8.903509 -2.772605 1.920321 2.323183857e-38
-8.869431 -2.945141 1.830986 2.341695290e-38
-8.769512 -2.331088 1.762390 2.332511881e-38
-9.871002 -2.206284 0.709667 1.013897733e-38
-9.791462 -1.675750 1.835373 5.623926415e-39
-9.614388 -1.677456 1.876845 7.652590406e-39
-9.616395 -1.678471 1.878150 7.652590406e-39
-9.456171 -2.461668 0.467569 6.083102495e-39
-9.766369 -2.634493 0.824543 8.387987636e-39
-9.780916 -2.638358 0.821935 8.387987636e-39
-9.946917 -2.237102 0.541903 4.146994268e-39
-9.900858 -2.548158 0.875198 1.244495268e-38
-9.600571 -1.797364 1.643292 3.133206677e-39
-9.954008 -2.109148 1.504335 5.622480275e-39
-9.900989 -2.229650 0.776273 4.423935686e-39
-9.877037 -2.052880 1.481575 2.764778686e-39
-9.893235 -2.758800 0.919957 1.152299778e-38
-10.204366 -2.500653 1.402115 1.465620586e-38
-10.169421 -2.672263 1.136743 1.004714323e-38
-10.159008 -2.598187 1.142365 1.106200842e-38
-10.071728 -2.762450 1.017053 9.310301266e-39
-9.884844 -2.709458 0.911092 7.189804582e-39
-8.938760 -2.454972 2.073601 2.148012441e-38
-9.928880 -2.689680 0.899054 7.098326416e-39
-8.926404 -2.450258 2.072313 2.148012441e-38
-9.173094 -2.667352 0.422325 4.055520306e-39
-9.920212 -2.167347 0.953304 4.516132717e-39
-8.997461 -2.811256 2.102458 2.350987300e-38
-8.884064 -2.303719 1.980114 2.175671130e-38
-10.034794 -1.936023 1.034586 2.673307527e-39
-9.190055 -2.781134 0.431190 6.174582061e-39
-9.968182 -2.236629 0.956561 6.450800409e-39
-8.781106 -2.129692 1.840807 2.111134609e-38
-10.053704 -2.527812 1.004158 4.975667529e-39
-9.029499 -2.764686 2.146477 2.240064017e-38
-8.982937 -1.928493 1.912247 7.742626635e-39
-10.031332 -2.451447 0.432829 3.872569581e-39
-8.957558 -1.988691 1.744164 4.700168047e-39
-10.067277 -2.109727 0.648787 5.530290250e-39
-9.903811 -2.274966 0.953219 8.204315242e-39
-10.063320 -2.584493 1.041697 1.760718488e-38
-9.706702 -2.314695 0.567228 5.529928715e-39
-9.960230 -2.310685 0.889907 7.373472771e-39
-10.087661 -2.201675 1.447245 3.225037969e-39
-9.970493 -2.701796 0.948625 1.585619239e-38
-9.696549 -2.752506 0.860251 3.778930614e-39
-9.836081 -2.329643 0.807069 6.360759976e-39
-9.579663 -2.388814 0.555232 6.544802313e-39
-10.086943 -2.750396 1.055232 7.281997409e-39
-10.167384 -2.279951 1.295937 4.145549529e-39
-9.922686 -1.952744 1.365237 2.580031496e-39
-10.091062 -2.290110 1.508147 8.018123314e-39
-9.025793 -2.812972 2.164917 1.659340850e-38
-9.877749 -1.814319 1.403109 2.581111897e-39
-10.272635 -2.622859 1.414749 9.678360715e-39
-8.894434 -3.055791 1.070373 1.871569885e-38
-9.822657 -1.743278 1.562281 7.651871540e-39
-9.034348 -2.570981 0.585735 6.913582030e-39
-9.326866 -1.783012 1.865531 6.083826966e-39
-10.294095 -2.664953 1.359066 8.112114007e-39
-10.104320 -1.823004 1.303722 5.807957541e-39
-9.777177 -2.454811 0.393904 8.387996044e-39
-9.787647 -2.365435 0.802580 9.954944802e-39
-9.172933 -1.846917 1.932393 9.127720484e-39
-10.077477 -2.722410 1.035585 9.218458763e-39
-9.156625 -2.574265 0.493665 7.742976959e-39
-10.200378 -2.510639 1.293273 1.004677750e-38
-10.217526 -2.476049 1.361106 6.635541993e-39
-10.212008 -2.607978 1.281667 2.286197005e-38
-10.047736 -2.170079 1.556539 3.962958938e-39
-10.041901 -1.950588 0.965599 7.006859462e-39
-9.845514 -1.693989 1.688633 5.715763313e-39
-9.304455 -1.814351 1.943041 1.069432592e-38
-9.598416 -2.394637 0.484470 9.217748305e-39
-9.950983 -2.676982 0.489266 6.268214022e-39
-10.148632 -2.354445 1.379557 1.401119238e-38
-10.318300 -1.888831 1.010626 4.333188998e-39
-9.024124 -2.537236 0.648142 6.637718210e-39
-8.812333 -2.757770 1.708512 1.180102381e-38
-9.629798 -2.679239 0.822805 1.004786630e-38
-9.868632 -2.071085 0.792068 6.911775756e-39
-9.420543 -2.436009 0.511279 4.332107196e-39
-9.936492 -2.015506 1.248476 5.437010016e-39
-10.100729 -2.292401 1.162026 1.732987072e-38
-10.048876 -2.297878 1.681295 3.963320473e-39
-10.225811 -2.682796 1.272118 8.203957911e-39
-9.987696 -2.644568 0.978733 1.733167419e-38
-9.308986 -2.025907 2.072482 1.373750058e-38
-9.495614 -2.425268 0.544689 7.651147068e-39
-9.858946 -2.095343 0.863574 5.713232568e-39
-10.081409 -2.277039 1.584640 8.756407219e-39
-10.074288 -2.210555 1.295055 1.124532068e-38
-9.883136 -2.341375 0.843170 1.170666457e-38
-9.661659 -1.718629 1.731575 6.914306501e-39
-10.117446 -2.743952 1.107086 2.111205795e-38
-10.012194 -2.205395 0.879152 8.940079613e-39
-9.965472 -2.047127 0.848273 5.805793936e-39
-9.995800 -2.084672 1.154416 8.848237110e-39
-9.723153 -1.778026 2.048308 1.604275566e-38
-9.827638 -2.092225 1.648801 4.147715936e-39
-9.817287 -2.086802 1.647436 4.147715936e-39
-10.119727 -2.440527 1.061732 9.032624166e-39
-10.065981 -2.825346 1.048683 1.714764587e-38
-10.046494 -2.120578 0.898920 6.727746031e-39
-9.622423 -1.823946 1.608185 4.332107196e-39
-9.899371 -2.149020 0.761920 1.382751298e-38
-10.182179 -2.403335 1.115272 1.142971054e-38
-10.095786 -2.667476 1.037257 1.133931838e-38
-9.944455 -2.362425 0.880524 7.096520143e-39
-9.834529 -2.326835 0.809817 7.373472771e-39
-9.898678 -2.410826 0.709094 8.203953707e-39
-10.169678 -2.263339 1.334122 6.174209316e-39
-8.852673 -2.228453 1.470047 7.189454257e-39
-8.723010 -2.219467 1.499856 6.360411053e-39
-9.633107 -2.457509 0.640999 4.056596504e-39
-8.751059 -2.950478 1.177093 7.466388669e-39
-10.051372 -2.347376 1.069428 1.935853471e-38
-10.006107 -2.137764 1.081408 1.207436389e-38
-10.119976 -2.318898 1.631845 4.331738654e-39
-10.012340 -2.157670 1.444198 4.883114568e-39
-9.954556 -2.499466 0.942109 9.125184133e-39
-8.801210 -3.124549 1.611266 2.230808861e-38
-9.932415 -2.193679 0.740397 1.354984429e-38
-10.239223 -2.546111 1.567663 7.557864031e-39
-9.929925 -1.971741 1.447361 5.161863661e-39
-8.768710 -2.707392 1.686991 1.880572527e-38
-9.621711 -2.539623 0.757917 6.637346866e-39
-10.271843 -2.573430 1.372592 1.825218855e-38
-9.881189 -2.170245 0.817075 6.819211584e-39
-9.840813 -2.605520 0.890551 8.848595843e-39
-9.903103 -1.699771 1.573122 5.623926415e-39
-10.277295 -2.717104 1.280123 1.456580670e-38
-10.306550 -1.836049 1.115965 4.608691283e-39
-9.874188 -2.749437 0.918536 1.392043589e-38
-9.776602 -1.668370 1.749152 6.915025367e-39
-9.037616 -2.791735 2.096435 1.889899990e-38
-10.069124 -2.189092 1.339316 1.050739691e-38
-9.580068 -1.886178 1.651337 3.502346527e-39
-8.973439 -3.289401 1.231627 2.083620114e-38
-10.227468 -2.779781 1.189228 1.401335318e-38
-10.189608 -2.853094 1.118294 1.355201630e-38
-10.062527 -2.274142 1.661404 6.728827834e-39
-9.934145 -2.683993 0.948764 1.650191352e-38
-10.006917 -2.128565 1.510688 7.834093589e-39
-9.689146 -2.467377 0.676194 8.757847754e-39
-10.145972 -2.657999 1.071183 1.060138901e-38
-9.962742 -1.999243 1.371083 3.686734984e-39
-10.276687 -2.507385 1.273680 1.207507995e-38
-10.011979 -2.847029 1.029836 1.557923836e-38
-10.273499 -2.872123 1.186205 1.613386248e-38
-10.157270 -2.512185 1.172705 1.382715285e-38
-10.431568 -2.699861 1.484710 1.521117751e-38
-10.343709 -2.705250 1.394664 1.622497351e-38
-10.335523 -2.722939 1.362733 1.659411336e-38
-10.096107 -2.250268 1.264181 7.372742695e-39
-10.028809 -2.280853 1.544832 7.096520143e-39
-10.064696 -2.266563 1.218772 8.940068402e-39
-10.331183 -2.857071 1.230355 1.613314221e-38
-8.705217 -2.662077 1.535363 2.276977442e-38
-8.634267 -2.485743 1.449895 2.332367407e-38
-9.179404 -2.160282 1.662154 3.410152299e-39
-8.801577 -2.395327 1.818091 2.295452861e-38
-8.708735 -2.451203 1.601652 2.350806673e-38
-10.062417 -2.176244 0.574654 4.515775386e-39
-8.810245 -2.070273 1.754016 8.202878912e-39
-9.988435 -2.124297 1.467246 7.649705132e-39
-9.093173 -1.924905 1.982414 1.622750145e-38
-10.100237 -2.293555 1.513657 8.479820330e-39
-10.116740 -2.519036 1.118256 1.567250458e-38
-8.874602 -2.909607 1.807972 1.898940047e-38
-8.933898 -2.738056 1.989373 2.341658716e-38
-9.341377 -2.470465 0.535514 4.515776787e-39
-8.917112 -1.979624 1.810867 6.083105297e-39
-8.650155 -2.458203 1.110882 4.055520306e-39
-9.033658 -2.707155 2.195811 2.341659137e-38
-9.048120 -1.903869 1.853000 5.806518408e-39
-9.468587 -1.766017 1.790803 6.822110871e-39
-9.682076 -1.672854 1.790852 4.240996171e-39
-9.570491 -1.737595 1.754989 5.808321879e-39
-8.743955 -2.763377 1.585506 2.193929488e-38
-9.280134 -1.800708 1.871215 6.083466832e-39
-9.026908 -2.514852 0.704610 6.267490952e-39
-8.952967 -2.413110 2.105898 2.341658997e-38
-10.042214 -1.809973 1.239359 4.609415754e-39
-10.069937 -2.761862 1.016967 1.161554514e-38
-9.017896 -2.819162 2.112095 2.332368108e-38
-8.894132 -2.841965 1.863649 2.350554579e-38
-8.785899 -2.188370 1.837839 2.350878840e-38
-9.820071 -1.709221 1.634824 4.609418557e-39
-8.663784 -2.424958 1.150332 6.267493754e-39
-10.153957 -2.487079 1.013927 1.253605810e-38
-8.916271 -1.993908 1.758487 5.990909667e-39
-8.839143 -2.067630 1.685013 5.990909667e-39
-9.338800 -1.840036 1.744882 5.899075573e-39
-8.936765 -2.937047 1.935696 2.313856955e-38
-8.765595 -3.122377 1.559906 2.286126379e-38
-8.858610 -2.733298 1.831611 1.779085728e-38
-9.292888 -2.491244 0.538466 6.450801810e-39
-8.563762 -2.646721 1.239862 1.861954455e-38
-8.766906 -2.134691 1.728158 9.863479249e-39
-9.935794 -2.254205 0.503768 7.466755809e-39
-8.766029 -2.189684 1.657280 1.327615669e-38
-9.863788 -2.666614 0.866455 6.359320843e-39
-10.066308 -2.196542 1.102541 5.252973284e-39
-10.242705 -1.928524 0.997141 9.312113145e-39
-8.858727 -3.089838 1.184614 5.438447748e-39
-8.883740 -2.803185 1.888126 2.276978142e-38
-9.495851 -1.765039 1.739212 5.623567683e-39
-9.513873 -2.415258 0.509431 4.700170849e-39
-9.566663 -1.709075 1.810260 4.517583061e-39
-10.112277 -2.306341 1.474858 9.308862132e-39
-10.114007 -2.267157 1.524784 3.500901788e-39
-10.014145 -2.046028 1.440560 2.395998969e-39
-10.112898 -2.273107 1.361014 4.884190765e-39
-8.700580 -2.306074 1.575082 2.065108541e-38
-9.917378 -2.041312 0.869220 1.631751385e-38
-10.126178 -2.325944 1.424994 1.096836665e-38
-9.844945 -1.869072 1.505346 2.304525008e-39
-9.813566 -2.084408 1.626505 5.069669432e-39
-9.158961 -1.840107 1.931008 9.863844988e-39
-8.715045 -2.272904 1.626091 2.046489488e-38
-8.784277 -2.374589 1.587173 1.935998365e-38
-10.104330 -1.711788 1.399279 5.992350202e-39
-9.540595 -2.485179 0.393208 4.885280975e-39
-9.634400 -2.268774 1.855965 4.700889715e-39
-9.024365 -2.012934 1.699186 5.531370652e-39
-9.853948 -1.728539 1.570822 4.149156471e-39
-9.958655 -2.168990 0.774409 1.493385914e-38
-9.727332 -2.415085 1.940601 4.240633235e-39
-10.127760 -2.327621 1.425358 1.050703678e-38
-9.805971 -1.788908 1.511945 2.581111897e-39
-8.794683 -2.965272 1.650062 1.770045951e-38
-9.463193 -1.737862 1.844777 8.111773492e-39
-9.838770 -2.657915 0.863786 4.424653150e-39
-9.539014 -2.494889 0.682348 5.346979392e-39
-10.108507 -2.513060 1.116567 1.935925218e-38
-8.702478 -2.254979 1.619304 2.055853245e-38
-10.146673 -2.391453 1.448316 4.146268395e-39
-10.143471 -2.351669 1.374862 1.189032856e-38
-8.957569 -2.508621 0.765824 6.544799510e-39
-8.688585 -2.349067 1.300151 6.268215423e-39
-9.414995 -1.963840 1.665919 2.304523606e-39
-10.032608 -2.254748 1.581408 6.635188866e-39
-8.883620 -2.047113 1.693553 3.871129047e-39
-9.047882 -2.654794 2.209099 2.083547527e-38
-9.969574 -2.195772 0.595127 7.650784132e-39
-9.929811 -2.069216 1.553863 2.395277300e-39
-9.542662 -2.436196 0.548556 5.532089518e-39
-9.791970 -1.681526 1.696991 5.071475706e-39
-9.759226 -2.415166 0.736133 8.297232541e-39
-10.073844 -1.782815 1.287088 3.503787062e-39
-10.153251 -2.386770 1.304776 1.253534064e-38
-10.199150 -2.540782 1.283782 6.543343561e-39
-9.543329 -2.440332 0.433634 6.544799510e-39
-9.421624 -1.807278 1.757840 7.928458429e-39
-10.062643 -2.182397 1.338672 9.032273841e-39
-8.765247 -2.205041 1.784152 2.166595620e-38
-8.761879 -2.204890 1.782924 2.166595620e-38
-10.132882 -2.406692 1.679197 6.452238141e-39
-9.158162 -2.818420 0.424252 3.779657888e-39
-10.043571 -1.997389 0.952611 4.424300023e-39
-9.029514 -1.998290 1.683078 6.729913840e-39
-8.764707 -2.131831 1.805048 1.926887263e-38
-8.916883 -2.072904 2.000502 1.106382871e-38
-10.032517 -1.883288 1.089781 5.163308400e-39
-10.030263 -2.614731 1.008861 1.456652416e-38
-9.159106 -3.091319 0.716053 4.700884110e-39
-10.123053 -2.491417 1.140378 2.009610115e-38
-9.052303 -2.617814 2.224697 2.065072808e-38
-8.729016 -2.155890 1.744655 2.083547527e-38
-8.995556 -2.599555 2.152853 1.613313381e-38
-9.794403 -2.391201 0.731910 3.780006811e-39
-10.036968 -1.853140 1.182137 5.071112770e-39
-8.788016 -2.086981 1.712247 7.835538328e-39
-8.579142 -2.628192 1.141402 4.976034669e-39
-9.836163 -2.543347 0.807215 5.254057889e-39
-9.766789 -1.668918 1.747705 5.255866966e-39
-9.678567 -1.684973 1.779373 6.822829737e-39
-8.680283 -2.561941 1.522292 2.120389065e-38
-10.044451 -2.100478 1.380565 3.409785158e-39
-8.747419 -2.693894 1.649633 2.240136324e-38
-9.514940 -2.483173 0.602393 9.217746904e-39
-8.831456 -2.689532 0.794737 6.266767882e-39
-9.564042 -1.775290 1.704720 5.808677809e-39
-10.001270 -2.399695 1.812942 4.884562109e-39
-9.856108 -2.267547 0.746659 6.269286015e-39
-10.049954 -1.759276 1.361393 6.915023966e-39
-9.180449 -1.831559 1.894090 9.680894263e-39
-8.990283 -2.563440 2.138521 2.138792878e-38
-8.871618 -2.692952 1.888824 1.981988280e-38
-10.067911 -2.283566 1.167523 1.576218768e-38
-8.855618 -2.897656 1.772072 1.604165424e-38
-10.059478 -2.349739 0.981678 5.989813852e-39
-10.317668 -2.641519 1.424009 1.050811858e-38
-8.959973 -2.919429 1.967657 2.313892548e-38
-8.781219 -2.554780 0.846153 1.502498278e-38
-10.020949 -2.439969 1.876967 2.764781488e-39
-8.724842 -2.350217 1.589805 2.304924798e-38
-9.452898 -1.762201 1.940689 7.650431005e-39
-9.073837 -2.938117 0.653979 4.700521174e-39
-9.073837 -2.938117 0.653979 4.700521174e-39
-9.228243 -1.818541 1.867839 8.112848288e-39
-8.895357 -2.065682 1.995295 1.217017627e-38
-9.074358 -2.583687 0.539583 4.056236370e-39
-10.001262 -2.542319 0.426899 6.636997943e-39
-8.986887 -1.965152 1.766408 4.239192700e-39
-8.721009 -2.333267 1.625149 1.650300093e-38
-10.131086 -1.646842 1.469520 5.621764212e-39
-8.779818 -2.486702 0.944286 7.560030438e-39
-8.964567 -2.499491 2.128146 2.304924798e-38
-9.659489 -2.950150 0.546533 5.346259124e-39
-9.387707 -1.873945 2.012235 1.502824079e-38
-8.869147 -2.336210 1.931727 1.963476987e-38
-8.819119 -3.183547 1.515390 1.133825200e-38
-8.876048 -2.186016 2.061556 1.484312927e-38
-9.659205 -2.950362 0.546043 5.346259124e-39
-8.916693 -2.550626 0.695380 6.360408250e-39
-8.768992 -2.959037 1.177845 6.914658227e-39
-9.185049 -2.890389 0.452210 4.977836739e-39
-8.884893 -3.067778 1.802022 1.521047125e-38
-8.889759 -2.050868 1.693628 4.515056520e-39
-10.002317 -2.247127 1.656076 5.622120141e-39
-9.554208 -2.542840 0.766725 4.607972417e-39
-8.783834 -2.112529 1.786973 9.494695328e-39
-8.815878 -3.045374 1.746384 1.309141230e-38
-8.923539 -2.000897 1.968318 9.680892862e-39
-8.942986 -2.509735 2.085522 2.258503003e-38
-10.092873 -1.629745 1.352823 5.990909667e-39
-8.962739 -2.380208 2.293350 1.917668821e-38
-9.375424 -2.450729 2.329059 1.945291496e-38
-8.937230 -2.886368 2.038906 1.899193401e-38
-10.035557 -2.338322 1.023507 6.634823127e-39
-9.509830 -2.175886 2.178306 1.484312927e-38
-8.940142 -2.294456 2.119030 1.336799919e-38
-9.878456 -2.062250 1.619108 2.119412079e-39
-9.775934 -1.807165 2.061487 1.429176176e-38
-8.751626 -2.953292 1.178038 7.281277141e-39
-9.613541 -1.891377 2.085975 1.281554848e-38
-8.767757 -2.792250 1.632911 1.935997525e-38
-8.910032 -2.433045 2.025213 2.065071967e-38
-10.101959 -1.690360 1.514356 3.226482708e-39
-8.748162 -2.965351 1.548927 1.908375690e-38
-9.336260 -1.872344 1.717340 2.765503157e-39
-8.790883 -2.187216 1.685241 6.728830636e-39
-8.764653 -2.117121 1.683938 9.218472776e-39
-8.784861 -3.065067 1.257619 7.834093589e-39
-8.797593 -2.515014 0.895778 6.268935691e-39
-9.196543 -2.510665 0.593659 6.821386400e-39
-8.789183 -2.094543 1.671357 4.700168047e-39
-9.407548 -2.005534 2.069813 1.272334865e-38
-8.698714 -2.423708 1.186879 7.097976092e-39
-9.012600 -2.521948 2.200480 2.212693856e-38
-8.839352 -2.903698 1.751655 1.714872487e-38
-8.829867 -2.134229 1.944360 2.055996738e-38
-9.765699 -1.876120 1.583959 2.488916267e-39
-8.799878 -3.074299 1.258892 7.926646550e-39
-10.060286 -2.573082 1.045134 1.640935496e-38
-9.157139 -2.546096 0.540247 8.573104768e-39
-10.208018 -1.775097 1.197485 4.701611384e-39
-9.890838 -2.089117 1.556325 4.515776787e-39
-8.873662 -2.261548 2.036518 1.816252227e-38
-9.979548 -2.190919 1.670660 2.672583056e-39
-9.103992 -1.884823 1.932166 9.680535530e-39
-9.012321 -1.979186 1.957435 1.032626367e-38
-9.942584 -2.184902 0.819789 9.309578196e-39
-8.728087 -2.374987 1.643589 1.880717001e-38
-10.079565 -1.920067 1.022545 5.992708935e-39
-9.975969 -2.114839 1.514254 6.544436574e-39
-9.773401 -2.247650 1.823793 4.793082543e-39
-10.107727 -2.728524 1.019621 7.006126583e-39
-10.181393 -2.630309 1.176049 7.741166482e-39
-9.448985 -1.730382 1.874231 6.730634107e-39
-10.035290 -1.932780 1.035049 3.595622558e-39
-8.919136 -2.335479 2.102866 1.779410268e-38
-10.115661 -2.309606 1.496307 1.124568082e-38
-9.591115 -2.603158 0.720440 6.821384998e-39
-10.101679 -2.394802 1.099557 8.850032173e-39
-8.794195 -2.096189 1.899364 1.327615669e-38
-10.096788 -2.493593 1.053749 6.729176757e-39
-8.695298 -2.450021 1.095403 7.927733958e-39
-9.255608 -2.559053 0.432875 6.084544431e-39
-8.789804 -2.744907 1.680771 1.604093257e-38
-8.704041 -2.413421 1.149667 6.268214022e-39
-10.085601 -1.916248 1.026429 6.545523981e-39
-10.162511 -2.175898 0.538450 1.272046197e-38
-10.063948 -2.167997 1.289610 4.054075568e-39
-9.734241 -1.861778 1.614478 3.963324677e-39
-10.128181 -2.795094 1.082701 1.502714638e-38
-9.840832 -2.313590 0.507299 5.529928715e-39
-9.975881 -2.269771 1.000469 1.069142664e-38
-10.151666 -2.908988 1.073652 1.078543134e-38
-9.938257 -2.315830 0.793811 5.621755804e-39
-9.891747 -2.352380 0.811648 7.189078709e-39
-9.994057 -2.360166 1.723449 5.622843211e-39
-9.450308 -2.459073 0.465179 6.083821361e-39
-9.796737 -1.757789 1.575211 4.794525880e-39
-9.408550 -1.854430 1.718972 3.134285676e-39
-10.039426 -2.598989 0.954732 6.359679575e-39
-8.986441 -2.387661 2.164943 1.465873941e-38
-9.080696 -1.835008 1.946877 1.512079936e-38
-8.997029 -2.808092 2.101042 1.880789308e-38
-9.057022 -2.002473 1.707832 7.558232572e-39
-10.177431 -2.619498 1.158927 1.023332676e-38
-9.628116 -1.753808 1.671606 6.176740061e-39
-10.162503 -2.627713 1.102093 9.219897897e-39
-9.895830 -2.031325 1.540982 2.949169945e-39
-9.797786 -2.183044 0.653866 5.806868732e-39
-10.184961 -2.480674 1.209394 1.520865237e-38
-8.997101 -2.750690 2.129052 2.258826983e-38
-10.084472 -2.272428 1.120816 6.634823127e-39
-10.082211 -2.181005 1.139499 6.727378891e-39
-10.137461 -2.114572 1.368897 4.330659655e-39
-9.799775 -2.028086 1.651226 2.120132347e-39
-10.059830 -1.618806 1.546590 7.927382232e-39
-9.871024 -2.290096 0.483159 6.176016991e-39
-9.962279 -2.107894 0.883767 6.360041110e-39
-9.992314 -2.069776 1.269843 3.225393899e-39
-9.998466 -2.054925 1.382729 2.395277300e-39
-9.807516 -1.784898 1.517595 2.212329378e-39
-9.979520 -2.387643 1.812236 4.147715936e-39
-8.672655 -2.413998 1.184740 7.558595509e-39
-10.142780 -2.366481 1.269507 5.899418891e-39
-9.969038 -2.328771 1.821599 3.871124843e-39
-10.310991 -2.767860 1.263711 1.419738992e-38
-9.991386 -2.021990 1.311872 6.912137291e-39
-9.991386 -2.021990 1.311872 6.912137291e-39
-9.963533 -2.106792 0.770175 1.069323571e-38
-10.144526 -2.470627 1.189819 1.437961056e-38
-8.894332 -3.185620 1.404377 7.096528551e-39
-8.878014 -2.030872 1.737183 6.083824163e-39
-8.833508 -2.630710 0.706352 3.593820488e-39
-8.804300 -2.134238 1.597080 7.097970487e-39
-10.165997 -2.714691 1.150348 1.530301300e-38
-9.550116 -3.094912 0.598711 7.652226068e-39
-9.969370 -1.723926 1.636538 3.686018921e-39
-9.361530 -1.776660 1.939127 1.032590774e-38
-9.361276 -2.474490 0.545542 5.162944062e-39
-8.689726 -2.503338 0.979313 4.145918070e-39
-9.745323 -2.251838 1.830880 4.148436204e-39
-9.399671 -1.802987 1.748809 8.942970492e-39
-8.793296 -2.965109 1.651528 1.539701070e-38
-8.756552 -2.237601 1.823381 1.807068397e-38
-8.662925 -2.377997 1.465759 1.899156127e-38
-8.875593 -2.181723 2.035542 1.382897734e-38
-9.908371 -2.484169 0.870463 8.111035008e-39
-8.653147 -2.386953 1.210638 7.005780462e-39
-8.661165 -2.449062 1.035793 8.019573658e-39
-9.937734 -2.364434 1.827938 2.210886040e-39
-9.815640 -2.372951 0.753332 9.127350541e-39
-9.347698 -2.479194 0.501092 5.991624330e-39
-9.312420 -1.845981 1.667634 3.962967345e-39
-10.160645 -2.425027 1.248908 1.576146601e-38
-9.366331 -1.820332 1.764736 5.346980793e-39
-10.130569 -2.721149 1.088349 5.899418891e-39
-9.231177 -2.651184 2.326245 1.419668506e-38
-10.068954 -2.207302 1.293956 1.124460322e-38
-10.004768 -2.148772 0.638661 6.361127116e-39
-9.918025 -2.114515 0.714334 5.346256322e-39
-9.649519 -1.699167 1.776544 5.254425030e-39
-8.917997 -1.972377 1.784376 7.282724683e-39
-8.600711 -2.633265 1.218203 1.244676596e-38
-8.747476 -2.392408 1.166284 8.205043918e-39
-8.697784 -2.237983 1.462370 7.743342698e-39
-9.596387 -2.387327 0.557606 1.023370370e-38
-9.089884 -1.866303 1.858272 1.023370370e-38
-9.545739 -1.911376 1.686646 3.871126244e-39
-9.924725 -1.778019 1.435587 7.190171722e-39
-9.534810 -1.682539 1.854922 1.041845930e-38
-9.754951 -1.688489 1.718340 7.376002115e-39
-9.839528 -2.272426 0.659872 7.649702330e-39
-9.831785 -2.352362 0.738387 9.126628872e-39
-10.238634 -2.396689 1.493703 6.082368214e-39
-9.949339 -2.232533 0.575348 9.955313344e-39
-9.268659 -1.871483 1.736300 8.574182367e-39
-9.486393 -1.696837 1.875353 1.170991558e-38
-9.773233 -1.835784 2.066557 1.346091509e-38
-10.045198 -2.259676 1.591334 7.188726983e-39
-8.862699 -3.164502 1.392660 7.373472771e-39
-9.354704 -2.529521 0.426593 6.545878510e-39
-10.082250 -2.393918 1.715917 5.345537456e-39
-9.712598 -2.374010 0.430530 6.453682880e-39
-9.902471 -2.162980 0.759554 6.452952804e-39
-9.769716 -1.676335 1.686191 7.376363650e-39
-9.911782 -2.231104 0.594119 4.516495653e-39
-9.797452 -2.244834 1.811629 4.608694086e-39
-9.463243 -1.794291 1.724083 6.268937092e-39
-9.955136 -2.008521 1.297398 4.883836236e-39
-10.151254 -2.355433 1.378959 1.124495635e-38
-9.808433 -1.823640 1.545816 3.225040771e-39
-9.075866 -1.942896 1.742967 8.204320848e-39
-9.857830 -2.356593 0.773627 9.127707872e-39
-9.822657 -1.743278 1.562281 7.651871540e-39
-9.841287 -2.072584 1.720468 2.856255449e-39
-10.192826 -2.549339 1.226764 6.544788300e-39
-9.917325 -2.154336 0.757380 1.382823605e-38
-9.871015 -2.294494 0.481682 5.716117841e-39
-8.618942 -2.584165 1.071469 3.594542157e-39
-10.014067 -1.927637 1.029054 4.699087646e-39
-10.205032 -2.463041 1.573078 1.004786630e-38
-9.856409 -2.305209 0.740250 9.035152108e-39
-10.202383 -2.641800 1.232271 1.871640370e-38
-9.998948 -1.695379 1.513829 4.701611384e-39
-9.713594 -2.198449 1.802361 2.304525008e-39
-9.727180 -2.203690 1.808131 2.304525008e-39
-8.879053 -2.756241 1.251908 1.051028639e-38
-9.830545 -2.089814 1.653000 4.238466827e-39
-9.646375 -2.039939 1.760625 2.579671362e-39
-10.217551 -1.790925 1.169394 4.701611384e-39
-9.715781 -2.336542 1.893389 2.396720638e-39
-10.081164 -2.083908 0.712083 4.241712235e-39
-10.282001 -1.808094 1.169664 4.978198274e-39
-10.190501 -1.894806 0.984556 6.361850186e-39
-9.715995 -2.025764 1.674917 2.120132347e-39
-9.589695 -2.433744 0.400920 6.452966817e-39
-10.280193 -1.847814 1.046823 3.963324677e-39
-9.912097 -1.980323 1.007153 8.109953205e-39
-8.891509 -2.207509 2.053060 1.585728120e-38
-10.193640 -1.968282 0.868935 6.821389202e-39
-10.089554 -2.289576 1.503007 1.272045356e-38
-8.977524 -2.764983 2.082672 1.345982488e-38
-8.764682 -2.183850 1.832688 2.166595620e-38
-10.058102 -2.001390 1.034975 1.576290935e-38
-9.492212 -2.467811 0.411706 4.886001243e-39
-8.918119 -1.992821 1.758656 7.835538328e-39
-9.969734 -2.137957 0.863282 8.386898827e-39
-9.762031 -1.780866 1.569918 2.489635134e-39
-10.137537 -2.072234 0.713363 6.913944966e-39
-9.908148 -2.235812 0.500114 6.268215423e-39
-10.034815 -2.115642 1.001305 8.295063331e-39
-10.021718 -2.520368 0.970720 4.423209813e-39
-8.692333 -2.734147 0.849924 6.359320843e-39
-10.029657 -2.116008 1.453410 3.500901788e-39
-8.776851 -2.259970 1.382400 8.205042516e-39
-9.962764 -2.110414 0.832535 6.544433771e-39
-9.040589 -2.369184 1.924360 1.871713238e-38
-8.806701 -2.758388 1.719160 1.613384987e-38
-9.047919 -2.485702 2.170615 1.973056684e-38
-8.897557 -2.988800 1.830356 1.880789028e-38
-10.235807 -1.673103 1.313802 6.267496557e-39
-8.926712 -2.116024 1.628116 8.665301800e-39
-8.998693 -2.481680 0.635567 7.006499328e-39
-8.776596 -2.191265 1.499373 8.204323650e-39
-9.935096 -3.220842 0.739359 7.098699162e-39
-9.594105 -1.701109 1.938775 1.152552993e-38
-9.026274 -2.472354 2.176561 1.991496090e-38
-8.969289 -2.753252 2.005892 2.009898502e-38
-8.737239 -2.387156 1.158156 8.204323650e-39
-9.001869 -2.781292 2.095799 1.576579182e-38
-10.044915 -2.098424 0.713945 6.361131320e-39
-9.636811 -1.941875 1.633493 3.134284275e-39
-10.355163 -1.711496 1.209813 9.772369625e-39
-9.577025 -1.735781 1.760342 9.127360350e-39
-8.816915 -2.800419 1.732740 2.009646689e-38
-10.056559 -2.217663 1.128659 5.527399372e-39
-8.936481 -2.614418 2.022037 1.548812733e-38
-10.153814 -2.382567 1.201261 5.251888679e-39
-10.070973 -2.153339 0.591880 7.098696359e-39
-10.223166 -1.854532 1.082967 5.993069068e-39
-8.800906 -2.075496 1.749603 1.207617156e-38
-10.022559 -2.093058 0.739457 5.531370652e-39
-10.017871 -2.250711 1.571686 6.451159142e-39
-9.887573 -2.328512 0.809247 7.466388669e-39
-10.008836 -1.838939 1.255221 4.331388330e-39
-8.923326 -2.054317 1.637844 8.573100564e-39
-10.022814 -1.979769 1.026233 1.576290935e-38
-9.443224 -2.445952 0.516055 4.701249849e-39
-8.861306 -3.090554 1.186045 5.529560174e-39
-9.274384 -2.583488 0.404395 3.041728512e-39
-8.724474 -2.296757 1.341229 6.176019793e-39
-9.620799 -2.359529 0.521954 4.978195471e-39
-9.947814 -2.230055 0.574919 6.729190770e-39
-10.166852 -2.398095 1.308256 1.198216966e-38
-9.517941 -2.438369 0.463597 5.162225196e-39
-10.248783 -1.876783 1.031567 5.992350202e-39
-8.819337 -2.059119 1.721512 7.097610353e-39
-9.374333 -2.508937 1.902210 4.148436204e-39
-9.589811 -2.423504 0.433528 5.530650384e-39
-9.952264 -2.236172 0.541817 3.871126244e-39
-9.931263 -2.209848 0.603139 5.070028165e-39
-9.404682 -2.458329 0.507253 6.544802313e-39
-10.285353 -2.084957 0.733967 7.557506700e-39
-10.075819 -1.897008 1.088394 7.283446351e-39
-9.470893 -2.490255 0.399885 5.991628534e-39
-9.663282 -2.387760 0.452544 6.545522580e-39
-8.777945 -2.484327 0.947961 7.190171722e-39
-8.736060 -2.496142 1.649082 1.806816303e-38
-9.402401 -2.458174 0.506988 6.544802313e-39
-10.074827 -2.086915 0.743384 7.744421698e-39
-9.682896 -2.419932 0.647339 4.515776787e-39
-9.033063 -2.500212 0.640818 7.560030438e-39
-8.981203 -1.970589 1.953374 1.014187241e-38
-10.012597 -2.221139 0.516540 6.637714006e-39
-9.175468 -2.499272 0.584377 7.191247919e-39
-9.696988 -1.659744 1.910362 1.051101927e-38
-8.810678 -2.151633 1.561657 8.574182367e-39
-8.880900 -2.065234 1.652879 8.113204218e-39
-8.884048 -2.546112 0.754986 6.268935691e-39
-10.022635 -1.949981 1.093749 1.106129797e-38
-9.837521 -2.359941 0.409917 5.531372053e-39
-9.882409 -1.757140 1.482634 4.793805613e-39
-10.220485 -2.541190 1.371028 1.677778295e-38
-10.025559 -2.016980 0.937332 1.170882818e-38
-10.171651 -1.760341 1.235102 4.701609983e-39
-9.423461 -2.506659 0.401152 6.637718210e-39
-9.939507 -2.229645 0.534253 5.345897589e-39
-8.815118 -2.439188 1.011998 6.268939894e-39
-9.833994 -2.289471 0.685706 5.070745629e-39
-10.152337 -2.356983 1.380439 1.198288853e-38
-10.070781 -1.622878 1.515116 1.226057684e-38
-10.434608 -1.737515 1.113011 8.665301800e-39
-10.125306 -1.703456 1.292286 4.055164377e-39
-8.718261 -2.418934 1.088883 6.361487250e-39
-8.723264 -2.351104 1.238066 6.176740061e-39
-8.664861 -2.924797 1.403746 1.484419846e-38
-10.025290 -2.260850 1.664718 5.621398473e-39
-8.810678 -2.990179 1.692243 1.364493640e-38
-9.922643 -2.260207 0.832147 1.096945546e-38
-9.970578 -1.788846 1.371517 6.084544431e-39
-9.862108 -2.295724 0.473198 7.098694958e-39
-9.846499 -2.223937 0.706528 4.794158740e-39
-9.609516 -2.439892 0.404391 7.006500729e-39
-10.239273 -1.884040 0.943199 3.686734984e-39
-9.608786 -1.794465 1.957863 1.244676176e-38
-10.041848 -1.988359 1.038441 1.991314902e-38
-9.998498 -2.004348 1.036908 7.373107032e-39
-8.734220 -3.002800 1.262259 7.007218194e-39
-8.623289 -2.652632 1.046724 6.819575922e-39
-10.045322 -1.913121 1.124178 6.634831535e-39
-9.707426 -1.759981 1.630320 6.361131320e-39
-9.961141 -2.127945 0.723865 5.807234471e-39
-8.956515 -1.972037 1.787424 9.218471375e-39
-9.456734 -2.480853 0.431392 5.438453353e-39
